NORM_ASCII
1000 1455
   0.1028110    0.0227160    0.0014210   -0.4819221    0.2332179   -0.8446067
   0.1018230    0.0248090    0.0040130   -0.7273365    0.5356334   -0.4290437
   0.1622250   -0.0053900    0.0127360    0.2735378   -0.9419788   -0.1945586
   0.1575940   -0.0050590    0.0115930   -0.2863827   -0.8306557   -0.4774893
   0.1552360   -0.0029400    0.0117460   -0.7457528   -0.4268265   -0.5115388
   0.1541550   -0.0002960    0.0124460   -0.7250429   -0.5173111   -0.4546449
   0.1471860    0.0045890    0.0123800   -0.4439395   -0.8231615   -0.3540095
   0.1272100    0.0135130    0.0102730   -0.2578271   -0.9207907   -0.2926937
   0.1162990    0.0158610    0.0081710   -0.0202552   -0.9516749   -0.3064387
   0.1098270    0.0157270    0.0063460    0.1292627   -0.9319007   -0.3388987
   0.1044910    0.0154700    0.0047860   -0.1469033   -0.8728120   -0.4654231
   0.0978350    0.0197010    0.0045590   -0.8775906   -0.0956804   -0.4697659
   0.0998550    0.0236440    0.0066010   -0.8432597    0.4996979   -0.1980281
   0.1619760   -0.0055410    0.0160310    0.2401474   -0.9598095    0.1452411
   0.1572500   -0.0052690    0.0161490   -0.3665988   -0.8615488    0.3511964
   0.1549430   -0.0031170    0.0156010   -0.7239962   -0.6490075    0.2337066
   0.1539740   -0.0004050    0.0148300   -0.6571077   -0.7533594    0.0256726
   0.1470910    0.0045310    0.0136420   -0.5084931   -0.8497642    0.1390525
   0.1270930    0.0134420    0.0118160   -0.3637939   -0.8660757    0.3428803
   0.1160390    0.0157020    0.0116040   -0.1403742   -0.9307987    0.3375038
   0.1094010    0.0154690    0.0119550   -0.0360236   -0.9337057    0.3562246
   0.1039220    0.0151230    0.0122890   -0.3032101   -0.8666094    0.3962975
   0.0973240    0.0193890    0.0112900   -0.9027799   -0.3900224    0.1813036
   0.0995980    0.0234890    0.0099640   -0.9596491    0.2494046   -0.1298882
   0.1641610   -0.0041780    0.0180810    0.3315529   -0.8289806    0.4504042
   0.1605610   -0.0035080    0.0189960   -0.1324917   -0.3755503    0.9172829
   0.1579300   -0.0017740    0.0181060   -0.3393910   -0.5477070    0.7647423
   0.1556220   -0.0005880    0.0177450   -0.3890645   -0.8329606    0.3934533
   0.1509010    0.0023030    0.0164230   -0.4957465   -0.5135315    0.7003719
   0.1397670    0.0079740    0.0147460   -0.1673698   -0.0163085    0.9857593
   0.1208650    0.0160820    0.0138040   -0.0655005   -0.4028973    0.9128984
   0.1102990    0.0183830    0.0160740   -0.0765853   -0.4154504    0.9063860
   0.1045020    0.0204410    0.0163220   -0.1843277   -0.2913382    0.9386934
   0.0996400    0.0229300    0.0155760   -0.5693837   -0.3679586    0.7351250
   0.0990500    0.0254070    0.0127570   -0.9996048   -0.0171528   -0.0222735
   0.1540080    0.0007100    0.0294670    0.9416206   -0.2510481    0.2243333
   0.1518530    0.0012430    0.0332410    0.5282660   -0.2332663    0.8164079
   0.1469170    0.0029440    0.0343320   -0.2658441    0.0426933    0.9630702
   0.1452400    0.0036730    0.0323060   -0.4982306    0.0603739    0.8649400
   0.1424660    0.0047420    0.0311230   -0.4414789   -0.1092858    0.8905914
   0.1382800    0.0064420    0.0279620   -0.3968860   -0.1899146    0.8980055
   0.1195740    0.0133410    0.0248950   -0.1058895   -0.1660960    0.9804078
   0.1066050    0.0179070    0.0261860   -0.0442423    0.0380406    0.9982963
   0.0993560    0.0205790    0.0250230    0.0418863    0.1697314    0.9845998
   0.0956630    0.0218430    0.0259880   -0.0056920    0.2492344    0.9684265
   0.0865850    0.0252920    0.0228860   -0.4588728    0.3688956    0.8083018
   0.0844030    0.0262150    0.0206560   -0.9636139    0.2435795   -0.1100781
   0.0878870    0.0251470    0.0178080   -0.8558135   -0.0496159   -0.5148995
   0.1534740    0.0034490    0.0330130    0.6333460   -0.0854739    0.7691340
   0.1491750    0.0060800    0.0337500   -0.0072023    0.4579268    0.8889607
   0.1465310    0.0062430    0.0321150   -0.2089335    0.4403788    0.8731628
   0.1430290    0.0073740    0.0312660   -0.2363340    0.1729206    0.9561614
   0.1391160    0.0078100    0.0291290   -0.2921968   -0.0341458    0.9557484
   0.1161520    0.0166880    0.0256390   -0.0128432    0.1764136    0.9842323
   0.1060920    0.0216780    0.0256860    0.0629847    0.4385212    0.8965111
   0.0986540    0.0243280    0.0242340    0.0860430    0.5570395    0.8260167
   0.0941650    0.0264430    0.0240960    0.0410556    0.6343765    0.7719332
   0.0882570    0.0280410    0.0222140   -0.3570772    0.8042526    0.4750513
   0.0861670    0.0276390    0.0201650   -0.6564479    0.6450691   -0.3911035
   0.1551490    0.0050230    0.0311650    0.8740047    0.1901219    0.4471794
   0.1513980    0.0081010    0.0310380    0.2654751    0.8660290    0.4236942
   0.1479410    0.0082520    0.0300720    0.0964535    0.9019566    0.4209168
   0.1438950    0.0098600    0.0293950    0.0723440    0.8570716    0.5100928
   0.1405680    0.0099610    0.0284510    0.0451703    0.8184035    0.5728659
   0.1135290    0.0210820    0.0240400    0.2849595    0.8054277    0.5196964
   0.1057530    0.0248580    0.0229560    0.2713642    0.8640482    0.4240073
   0.0980080    0.0272700    0.0214460    0.2394222    0.9003308    0.3634302
   0.0923550    0.0293580    0.0204500    0.1722872    0.9336381    0.3140654
   0.0898370    0.0297250    0.0198270   -0.2580039    0.9631629    0.0758365
   0.0877860    0.0282280    0.0187530   -0.7733479    0.5351294   -0.3399551
   0.1556610    0.0050230    0.0282620    0.9786068    0.1720988   -0.1127422
   0.1520930    0.0081010    0.0270970    0.3759004    0.8486740   -0.3720906
   0.1485140    0.0082520    0.0268220    0.1424416    0.8780612   -0.4568576
   0.1444800    0.0098600    0.0260750    0.2074037    0.8469066   -0.4896253
   0.1410310    0.0099610    0.0258240    0.2943841    0.8776617   -0.3782168
   0.1141150    0.0210820    0.0207200    0.4378831    0.8371242   -0.3278437
   0.1064350    0.0248580    0.0190810    0.4092133    0.8512023   -0.3286323
   0.0986420    0.0272700    0.0178500    0.3775822    0.8812265   -0.2843792
   0.0929900    0.0293580    0.0168530    0.3305298    0.9093939   -0.2524931
   0.0904110    0.0297250    0.0165770   -0.1359340    0.9138523   -0.3826172
   0.0881160    0.0282280    0.0168840   -0.8153029    0.3545190   -0.4578182
   0.1549590    0.0030520    0.0263680    0.8641608   -0.1375521   -0.4840512
   0.1509640    0.0056070    0.0243550    0.2264056    0.3318739   -0.9157512
   0.1481210    0.0059650    0.0246930   -0.1572238    0.2565985   -0.9536445
   0.1444320    0.0067890    0.0246970   -0.0126039    0.1031267   -0.9945884
   0.1393760    0.0082720    0.0242730    0.2995659    0.3231166   -0.8976948
   0.1188640    0.0168930    0.0193950    0.3522509    0.3733493   -0.8582130
   0.1078430    0.0212730    0.0170780    0.3633897    0.3902648   -0.8459559
   0.1014990    0.0238110    0.0157270    0.3944144    0.4975181   -0.7726015
   0.0961470    0.0258650    0.0146900    0.3851546    0.5556384   -0.7368323
   0.0922890    0.0273300    0.0139640   -0.0279693    0.5174037   -0.8552842
   0.0892460    0.0268380    0.0153870   -0.6807206    0.1099109   -0.7242507
   0.1539030    0.0009520    0.0262180    0.8032558   -0.2296413   -0.5495862
   0.1492980    0.0027500    0.0239040    0.2360015    0.0121659   -0.9716765
   0.1472990    0.0034300    0.0244760   -0.1375495    0.0909473   -0.9863107
   0.1442420    0.0044500    0.0256680   -0.1868297   -0.1889203   -0.9640559
   0.1375370    0.0069280    0.0244860    0.0602441   -0.3075464   -0.9496241
   0.1231510    0.0123690    0.0199860    0.2034055   -0.1389332   -0.9691872
   0.1088220    0.0176640    0.0174600    0.3281380    0.0456930   -0.9435240
   0.1037420    0.0196080    0.0155270    0.3830877    0.1783562   -0.9063294
   0.0986540    0.0215030    0.0143990    0.3519672    0.2410161   -0.9044503
   0.0933830    0.0234950    0.0127760    0.0060206    0.2755667   -0.9612631
   0.0899250    0.0246120    0.0147060   -0.6371113    0.1246777   -0.7606212
   0.1537620   -0.0009920    0.0268560    0.8233126   -0.2988591   -0.4825345
   0.1490440   -0.0004210    0.0243440    0.3343684   -0.3329429   -0.8816727
   0.1466720    0.0003900    0.0238320   -0.0151825   -0.0840907   -0.9963424
   0.1433910    0.0029720    0.0252140   -0.4007886   -0.3222722   -0.8576183
   0.1373460    0.0058890    0.0251280   -0.3026326   -0.7613093   -0.5734297
   0.1223490    0.0106500    0.0213630    0.0162708   -0.6529790   -0.7572012
   0.1075250    0.0151190    0.0173030    0.3137117   -0.3510346   -0.8822469
   0.1026780    0.0157690    0.0148140    0.3655213   -0.2514974   -0.8961826
   0.0976990    0.0171200    0.0132380    0.2928624   -0.1863160   -0.9378262
   0.0928390    0.0182970    0.0114920   -0.1266104   -0.0645152   -0.9898523
   0.0904830    0.0205700    0.0130830   -0.7278557    0.0400327   -0.6845608
   0.1537160   -0.0022260    0.0284510    0.7760325   -0.6095932   -0.1617706
   0.1486810   -0.0029590    0.0267450    0.1847029   -0.8974114   -0.4006714
   0.1454850   -0.0029060    0.0258240   -0.3168579   -0.7557244   -0.5731332
   0.1422280    0.0013410    0.0262130   -0.6728060   -0.6321173   -0.3843954
   0.1373440    0.0055150    0.0261000   -0.4671329   -0.8690594   -0.1628578
   0.1220140    0.0103910    0.0231480   -0.1661929   -0.9491637   -0.2673352
   0.1059590    0.0128300    0.0192110    0.1448076   -0.9063693   -0.3968947
   0.1009630    0.0117440    0.0174030    0.1927930   -0.8843606   -0.4251320
   0.0958380    0.0121730    0.0160350    0.0721505   -0.8732616   -0.4818801
   0.0912370    0.0124070    0.0147620   -0.4733257   -0.6894621   -0.5482744
   0.0899020    0.0152680    0.0152750   -0.9029136   -0.2149539   -0.3722121
   0.1533860   -0.0022260    0.0303200    0.6483787   -0.6266867    0.4322832
   0.1480720   -0.0029590    0.0302030   -0.0742610   -0.9208627    0.3827495
   0.1447530   -0.0029060    0.0299750   -0.5721195   -0.7685006    0.2865067
   0.1418260    0.0013410    0.0284950   -0.7650618   -0.6087713    0.2099476
   0.1371980    0.0055150    0.0269300   -0.5509392   -0.7608724    0.3428400
   0.1217820    0.0103910    0.0244620   -0.2475203   -0.9007482    0.3569124
   0.1053500    0.0128300    0.0226700   -0.0504654   -0.9105558    0.4102942
   0.1000370    0.0117440    0.0226590    0.0054938   -0.8863419    0.4629987
   0.0947530    0.0121730    0.0221910   -0.1298113   -0.8783088    0.4601333
   0.0899940    0.0124070    0.0218160   -0.6601857   -0.6945551    0.2859162
   0.0889150    0.0152680    0.0208770   -0.9432291   -0.3071199   -0.1264762
   0.1523370   -0.0010980    0.0321130    0.5478061   -0.3494843    0.7601113
   0.1470980   -0.0007020    0.0330560   -0.2972130   -0.4342842    0.8503303
   0.1447620    0.0003550    0.0324100   -0.6319913   -0.3052084    0.7123446
   0.1419140    0.0026780    0.0303680   -0.6419727   -0.2540389    0.7234192
   0.1376600    0.0058660    0.0276580   -0.4632277   -0.2156772    0.8595949
   0.1205950    0.0118260    0.0250690   -0.1672470   -0.4305092    0.8869556
   0.1056670    0.0149580    0.0253310   -0.0962450   -0.3955967    0.9133675
   0.0994290    0.0162230    0.0254910    0.0042464   -0.2960015    0.9551780
   0.0948350    0.0168820    0.0259410   -0.0870366   -0.2384545    0.9672456
   0.0880640    0.0193850    0.0247470   -0.6053676   -0.1796922    0.7753972
   0.0865410    0.0213710    0.0227530   -0.9350499   -0.3543731   -0.0100699
   0.1423310    0.0018150    0.0419320    0.7874022   -0.4940669    0.3686403
   0.1394500    0.0024160    0.0453680    0.4531141   -0.2631003    0.8517428
   0.1371300    0.0030160    0.0456310   -0.0493079    0.1094415    0.9927695
   0.1354200    0.0035100    0.0447040   -0.2835397    0.1992499    0.9380324
   0.1335190    0.0040660    0.0435490   -0.2318007    0.0138023    0.9726654
   0.1309320    0.0047300    0.0439420   -0.1784488    0.1932145    0.9647923
   0.1281780    0.0055580    0.0417600   -0.2045610    0.2726676    0.9401102
   0.1012530    0.0129290    0.0360610   -0.0598076    0.0551215    0.9966868
   0.0778860    0.0190180    0.0377020   -0.0521888    0.2063064    0.9770947
   0.0676390    0.0218800    0.0343110   -0.4781690    0.4976185    0.7236921
   0.0697540    0.0213930    0.0327830   -0.3990532    0.4095836   -0.8203644
   0.0733860    0.0204200    0.0330810   -0.2416401    0.3205309   -0.9158985
   0.0802650    0.0188050    0.0287970   -0.4817085    0.5564592   -0.6769860
   0.1409650    0.0037900    0.0439500    0.6713332    0.2020901    0.7130717
   0.1390080    0.0048510    0.0442920    0.3201367    0.5488714    0.7721740
   0.1366670    0.0055440    0.0438720    0.1138276    0.4776678    0.8711353
   0.1342120    0.0062950    0.0434660   -0.0394724    0.5613258    0.8266531
   0.1309090    0.0070420    0.0425400   -0.0945605    0.5648148    0.8197820
   0.1252630    0.0085350    0.0412700   -0.0638996    0.3994622    0.9145200
   0.1019390    0.0146300    0.0359180    0.0431357    0.3580663    0.9326992
   0.0887390    0.0206320    0.0365670    0.1340486    0.5679599    0.8120668
   0.0816760    0.0222500    0.0346170    0.0203904    0.7116373    0.7022511
   0.0788900    0.0227510    0.0336500   -0.1027159    0.9478705    0.3016471
   0.0793590    0.0222280    0.0331810   -0.1838572    0.8247795   -0.5347291
   0.1420560    0.0034990    0.0423830    0.8378686    0.3782100    0.3936158
   0.1405400    0.0049850    0.0424030    0.5417455    0.7651412    0.3479523
   0.1378200    0.0064440    0.0420520    0.4255509    0.8053246    0.4127453
   0.1351450    0.0081580    0.0417980    0.1692631    0.9196553    0.3543786
   0.1306650    0.0079570    0.0403970    0.1012256    0.9433971    0.3158407
   0.1226940    0.0114780    0.0391350    0.2131616    0.8855034    0.4128510
   0.1027760    0.0159480    0.0346080    0.3007093    0.8170479    0.4919417
   0.0988980    0.0188840    0.0343810    0.3606420    0.8409846    0.4033388
   0.0952640    0.0199680    0.0336400    0.2476282    0.8978443    0.3640822
   0.0881420    0.0229000    0.0324450    0.0980630    0.9607346    0.2595624
   0.0853540    0.0227700    0.0315710   -0.2442127    0.9513944   -0.1876400
   0.1422690    0.0034880    0.0413810    0.8882890    0.4381326    0.1377768
   0.1408970    0.0049690    0.0407330    0.5887358    0.7960235   -0.1404876
   0.1382700    0.0064240    0.0399390    0.4969118    0.8229256   -0.2754489
   0.1357290    0.0081310    0.0390710    0.3529521    0.9111210   -0.2127991
   0.1310550    0.0079390    0.0385600    0.2759537    0.9568895   -0.0906207
   0.1232640    0.0114510    0.0364640    0.3499301    0.8843558   -0.3089721
   0.1032150    0.0159270    0.0325490    0.4101964    0.7727256   -0.4843904
   0.0995880    0.0188530    0.0311540    0.4503066    0.8204235   -0.3523198
   0.0959640    0.0199360    0.0303580    0.4067993    0.8736008   -0.2670878
   0.0889730    0.0228620    0.0285500    0.2639547    0.9304381   -0.2541905
   0.0860660    0.0227370    0.0282340   -0.2431581    0.8732414   -0.4222838
   0.1426920    0.0030280    0.0403230    0.9450083    0.3211736   -0.0616988
   0.1413050    0.0041820    0.0390330    0.4848799    0.5403359   -0.6876981
   0.1390950    0.0048170    0.0385290    0.2343951    0.3823321   -0.8938015
   0.1371300    0.0056510    0.0377290    0.4832415    0.6471324   -0.5896586
   0.1346210    0.0063390    0.0371980    0.4889144    0.8169864   -0.3057712
   0.1292530    0.0084930    0.0351810    0.2994194    0.3138772   -0.9010156
   0.1173880    0.0108170    0.0338570    0.0533661   -0.2414573   -0.9689430
   0.1092790    0.0133650    0.0317210    0.2835290    0.1900917   -0.9399343
   0.0992430    0.0164690    0.0291370    0.4440558    0.4578074   -0.7702122
   0.0914160    0.0198620    0.0258710    0.3651781    0.5881912   -0.7215789
   0.0879020    0.0204080    0.0256630   -0.1262592    0.4748919   -0.8709399
   0.1428310    0.0017920    0.0395910    0.8767828   -0.4040645   -0.2607369
   0.1412750    0.0022800    0.0379450    0.3920974   -0.0505661   -0.9185329
   0.1395420    0.0027240    0.0382370    0.0689377    0.1235169   -0.9899450
   0.1381550    0.0030990    0.0380370    0.3146978    0.0964607   -0.9442778
   0.1376640    0.0033030    0.0364280    0.4789127   -0.0656913   -0.8754012
   0.1346230    0.0041700    0.0350320    0.0879238   -0.4439124   -0.8917462
   0.1311580    0.0050310    0.0361800    0.0527975   -0.4896894   -0.8702969
   0.1186430    0.0084140    0.0344720    0.2590380   -0.0327890   -0.9653104
   0.1020820    0.0129940    0.0299340    0.3449526    0.2304095   -0.9099006
   0.0930950    0.0155900    0.0251160    0.2360549    0.3221664   -0.9167807
   0.0890250    0.0166870    0.0246300   -0.1004385    0.4360605   -0.8942949
   0.1410650    0.0007970    0.0396980    0.4369967   -0.8951033   -0.0884529
   0.1386440    0.0005150    0.0378250    0.3324574   -0.6506517   -0.6827331
   0.1357340    0.0013110    0.0372080    0.0623647   -0.1001451   -0.9930164
   0.1341240    0.0021460    0.0374340   -0.0900880   -0.0395341   -0.9951488
   0.1336690    0.0022450    0.0373000   -0.1711171   -0.6631123   -0.7286982
   0.1251150    0.0044810    0.0353390   -0.0942816   -0.8657422   -0.4915297
   0.1149070    0.0071700    0.0330280    0.1649777   -0.7935050   -0.5857749
   0.1006000    0.0090390    0.0270510    0.3591617   -0.4135911   -0.8366273
   0.0902930    0.0113090    0.0240760    0.1707731   -0.0163199   -0.9851752
   0.0836730    0.0131730    0.0227500   -0.0751840    0.4898220   -0.8685746
   0.0826880    0.0138890    0.0231840   -0.2482960    0.7738171   -0.5827145
   0.1392810    0.0003280    0.0405510    0.3383510   -0.9390920    0.0602059
   0.1358410   -0.0006950    0.0392010    0.1508712   -0.9647379   -0.2156817
   0.1315050   -0.0001330    0.0380860   -0.2801276   -0.7682830   -0.5755604
   0.1299080    0.0015540    0.0381440   -0.6809817   -0.0897955   -0.7267741
   0.1300400    0.0028580    0.0385950   -0.6902051   -0.5466765   -0.4740904
   0.1161860    0.0070070    0.0357770   -0.2135243   -0.9764676   -0.0303035
   0.0984500    0.0097180    0.0313440   -0.0149404   -0.9981332    0.0592194
   0.0805800    0.0067500    0.0250750    0.1055758   -0.9826707   -0.1523552
   0.0765370    0.0069640    0.0239350   -0.2493365   -0.7314620   -0.6346611
   0.0734280    0.0107630    0.0242100   -0.6577360    0.5864324   -0.4727372
   0.0756940    0.0113040    0.0250570   -0.4755269    0.8556777   -0.2041810
   0.1389720    0.0003420    0.0419980    0.2929745   -0.9362818    0.1937585
   0.1352700   -0.0006680    0.0418710   -0.0236743   -0.9520421    0.3050498
   0.1308510   -0.0001030    0.0411450   -0.5387688   -0.7687141    0.3446837
   0.1294200    0.0015760    0.0404250   -0.8485191   -0.5102976    0.1400420
   0.1297310    0.0028720    0.0400430   -0.6627108   -0.7261033    0.1832715
   0.1159250    0.0070190    0.0370010   -0.3101859   -0.8705358    0.3820367
   0.0979050    0.0097430    0.0339040   -0.0707065   -0.9015222    0.4269172
   0.0789880    0.0068240    0.0325290   -0.0611778   -0.8947881    0.4422799
   0.0748270    0.0070430    0.0319460   -0.6544918   -0.7398879    0.1555843
   0.0721080    0.0108230    0.0303860   -0.8201718    0.2935245   -0.4910820
   0.0745300    0.0113570    0.0305100   -0.4709064    0.7140311   -0.5180798
   0.1389800    0.0006770    0.0438660    0.2734198   -0.7844280    0.5566995
   0.1359150    0.0006220    0.0443660   -0.1949491   -0.5448389    0.8155645
   0.1328780    0.0014240    0.0437620   -0.5176063   -0.1772102    0.8370664
   0.1312600    0.0025230    0.0425770   -0.4876941   -0.5075426    0.7103204
   0.1300800    0.0029950    0.0421340   -0.3908957   -0.5009740    0.7721565
   0.1218880    0.0058620    0.0395970   -0.3277782   -0.0902225    0.9404368
   0.0994010    0.0113020    0.0357580   -0.1074079   -0.3430273    0.9331644
   0.0778580    0.0124930    0.0372500   -0.1515819   -0.3269642    0.9328008
   0.0707140    0.0145380    0.0356240   -0.8679185   -0.3693995    0.3320566
   0.0705370    0.0161950    0.0335190   -0.4789502    0.0135965   -0.8777368
   0.0735960    0.0158940    0.0334760   -0.2988166    0.1940361   -0.9343761
   0.1163490    0.0361860   -0.0181710    0.5353922    0.7879143   -0.3042142
   0.1165880    0.0330600   -0.0166690    0.9740381   -0.1246670   -0.1889653
   0.1167830    0.0330610   -0.0199360    0.6895328    0.3910180   -0.6096306
   0.1125610    0.0330680   -0.0211880    0.2333113    0.5151234   -0.8247507
   0.1077320    0.0330760   -0.0222290   -0.3703077    0.9135641   -0.1681453
   0.1114030    0.0330690   -0.0182190   -0.4758096    0.5500533    0.6863283
   0.1166890    0.0330600   -0.0165240    0.4390302    0.3609782    0.8227680
   0.1159300    0.0286860   -0.0151360    0.8085391   -0.0150492    0.5882499
   0.1166880    0.0286870   -0.0226810    0.8353576    0.4124040   -0.3634565
   0.1094010    0.0286990   -0.0245370    0.2313303    0.5459925   -0.8052195
   0.1046400    0.0287070   -0.0263280    0.1033028    0.5934612   -0.7982057
   0.1008740    0.0287120   -0.0258500   -0.5808734    0.7943135   -0.1779106
   0.1057650    0.0287030   -0.0204820   -0.6911461    0.2481339    0.6787832
   0.1091630    0.0286970   -0.0167110   -0.4286004    0.1199142    0.8955011
   0.1161710    0.0236860   -0.0165530    0.3027172   -0.0601311    0.9511816
   0.1190270    0.0236820   -0.0197930    0.9196949    0.2550082    0.2985499
   0.1189980    0.0236830   -0.0243050    0.8535856    0.4261207   -0.2996879
   0.1151300    0.0236900   -0.0272070    0.3638794    0.5718036   -0.7352772
   0.1119260    0.0236960   -0.0284710    0.0706669    0.5121011   -0.8560132
   0.1087150    0.0237010   -0.0278950    0.0658453    0.2771083   -0.9585799
   0.1055860    0.0237060   -0.0295890    0.2991903    0.3416284   -0.8909406
   0.0979220    0.0237180   -0.0296710   -0.2581490    0.5582899   -0.7884614
   0.0966080    0.0237190   -0.0276180   -0.9258263    0.3085480    0.2182745
   0.1037770    0.0237070   -0.0229270   -0.5166396   -0.0345477    0.8555057
   0.1074490    0.0237000   -0.0189160   -0.5411024   -0.1632317    0.8249628
   0.1180090    0.0174330   -0.0162290    0.0185960   -0.0458648    0.9987746
   0.1204520    0.0174300   -0.0192880    0.9309681   -0.0500695    0.3616510
   0.1204890    0.0174330   -0.0288650    0.8499808    0.1170433   -0.5136472
   0.1167970    0.0174390   -0.0305940    0.1646006    0.2572782   -0.9522156
   0.1082350    0.0174510   -0.0281060    0.1848517    0.3460295   -0.9198334
   0.1010180    0.0174640   -0.0321710    0.1909535    0.3817840   -0.9043106
   0.0959750    0.0174710   -0.0323620   -0.6907257    0.3829587   -0.6133846
   0.0969240    0.0174700   -0.0294660   -0.9982553    0.0484770   -0.0337103
   0.0948020    0.0174710   -0.0257140   -0.9329086    0.3004484    0.1985254
   0.0962220    0.0174700   -0.0247660   -0.2753480    0.2100346    0.9381199
   0.0991690    0.0174650   -0.0256430   -0.1094294    0.0117989    0.9939245
   0.1070410    0.0174510   -0.0213360   -0.5441421    0.0101575    0.8389316
   0.1143990    0.0111890   -0.0170550    0.2526453   -0.7678630    0.5886907
   0.1189570    0.0111840   -0.0241850    0.7053378   -0.7026238    0.0939062
   0.1180040    0.0111860   -0.0288590    0.6192489   -0.5121310   -0.5951912
   0.1114650    0.0111980   -0.0338840    0.2695169    0.0407261   -0.9621341
   0.1034200    0.0112110   -0.0350480    0.2242588    0.2140766   -0.9507256
   0.0973950    0.0112200   -0.0357930   -0.0986124    0.0151107   -0.9950112
   0.0951780    0.0112240   -0.0351050   -0.9288748   -0.2365945   -0.2849819
   0.0961320    0.0112210   -0.0304300   -0.9606605   -0.0648583   -0.2700458
   0.0934810    0.0112240   -0.0262010   -0.9609313   -0.2737512   -0.0408817
   0.0934610    0.0112230   -0.0239200   -0.7873081   -0.4147092    0.4562480
   0.0958440    0.0112190   -0.0226750    0.0157474   -0.4138462    0.9102106
   0.0978550    0.0112160   -0.0236530    0.1120578   -0.3526490    0.9290219
   0.1024470    0.0112090   -0.0234150   -0.4235788   -0.1634127    0.8909979
   0.1068070    0.0112010   -0.0193460   -0.4286872   -0.3876929    0.8160402
   0.1117690    0.0080700   -0.0262770    0.1262667   -0.9531010    0.2750551
   0.1129090    0.0080700   -0.0295040    0.3806702   -0.9020121   -0.2036281
   0.1070570    0.0080800   -0.0333910    0.3141493   -0.6372175   -0.7037500
   0.1024590    0.0080870   -0.0350270    0.0555015   -0.6159034   -0.7858642
   0.0984580    0.0080930   -0.0335750   -0.4785619   -0.8074627   -0.3449384
   0.0989630    0.0080910   -0.0292340   -0.2487885   -0.9401077    0.2330273
   0.1012250    0.0080870   -0.0273110   -0.1939520   -0.8627554    0.4669431
   0.1078660    0.0080770   -0.0275370   -0.0754223   -0.9068404    0.4146708
   0.1057220    0.0065180   -0.0305160   -0.0100827   -0.9992979    0.0360832
   0.1063200    0.0258850   -0.0138210    0.9856281    0.0000242    0.1689299
   0.1057170    0.0163290   -0.0102970    0.5412832   -0.2045020    0.8155927
   0.1059140    0.0218290   -0.0114500    0.4663510   -0.2351533    0.8527718
   0.1052400    0.0279480   -0.0075190    0.3882882   -0.4916581    0.7794258
   0.1050320    0.0309730   -0.0062990    0.6750177    0.0535472    0.7358558
   0.1053100    0.0339980   -0.0079260    0.8810506    0.3510562    0.3170322
   0.1060880    0.0332420   -0.0124660    0.8253965    0.5627127    0.0455522
   0.1068890    0.0324850   -0.0171420    0.8508340    0.4703590   -0.2341878
   0.1072960    0.0270550   -0.0195130    0.8412474    0.0378209   -0.5393258
   0.1067970    0.0209350   -0.0165990    0.3824408   -0.5606153   -0.7344723
   0.1061350    0.0161910   -0.0127370    0.3061023   -0.9147923   -0.2635460
   0.1005880    0.0193550   -0.0108980   -0.4370294   -0.7523836    0.4928734
   0.1006570    0.0237540   -0.0113050   -0.1072925   -0.0908766    0.9900655
   0.0999720    0.0311790   -0.0073070   -0.3131875   -0.5925367    0.7421684
   0.0996230    0.0328980   -0.0052740   -0.1789241   -0.4140561    0.8924930
   0.0998210    0.0378480   -0.0064250    0.2643908    0.7718155    0.5782718
   0.1011110    0.0364730   -0.0139480    0.3794255    0.9246832   -0.0315787
   0.1020630    0.0357850   -0.0195040    0.2857764    0.8165751   -0.5015346
   0.1023430    0.0317290   -0.0211300    0.1820445    0.3239929   -0.9283795
   0.1024580    0.0288420   -0.0218070   -0.1437914   -0.3120632   -0.9391169
   0.1016800    0.0245100   -0.0172670   -0.2448343   -0.5286823   -0.8127430
   0.1012030    0.0197670   -0.0144890   -0.2941058   -0.7595017   -0.5802231
   0.0954480    0.0207980   -0.0114290    0.0309485   -0.6731629    0.7388464
   0.0954950    0.0271920   -0.0117010    0.0241373   -0.2693902    0.9627286
   0.0949710    0.0320730   -0.0086510   -0.0119516   -0.6430669    0.7657167
   0.0946000    0.0341350   -0.0064830   -0.0902221   -0.2258639    0.9699719
   0.0946460    0.0373670   -0.0067540   -0.1640865    0.5573922    0.8138732
   0.0952040    0.0373670   -0.0100070   -0.1875567    0.9821850   -0.0116216
   0.0958310    0.0378480   -0.0136660   -0.0558679    0.9897300   -0.1315797
   0.0966330    0.0360610   -0.0183420   -0.2531965    0.5842800   -0.7710437
   0.0968300    0.0326230   -0.0194950   -0.2918761    0.0256488   -0.9561122
   0.0964230    0.0270550   -0.0171210   -0.2084399   -0.3993435   -0.8927920
   0.0961210    0.0223100   -0.0153610   -0.0193634   -0.6693945   -0.7426547
   0.0901910    0.0179790   -0.0112850   -0.5275547   -0.8376258   -0.1416652
   0.0900170    0.0206610   -0.0102680   -0.4306188   -0.1398170    0.8916382
   0.0898900    0.0274670   -0.0095230   -0.3803568   -0.3973711    0.8351197
   0.0894130    0.0318670   -0.0067440   -0.3850903   -0.3197182    0.8657284
   0.0893670    0.0348920   -0.0064740   -0.8288559    0.5315896    0.1743857
   0.0909230    0.0354420   -0.0155540   -0.7110141    0.6386467   -0.2942607
   0.0914000    0.0314540   -0.0183320   -0.5865876    0.0166638   -0.8097143
   0.0908180    0.0212790   -0.0149440   -0.5155140   -0.3760799   -0.7699410
   0.0905170    0.0279480   -0.0131820   -0.9856282    0.0000247   -0.1689293
   0.0891550    0.0324480    0.0000070    0.0163775    0.9996890   -0.0188060
   0.0972980    0.0318230    0.0081700    0.6735471    0.6885387    0.2687912
   0.0946920    0.0318230    0.0089170   -0.1304563    0.4963376    0.8582716
   0.0875090    0.0318230    0.0046670   -0.2441586    0.2550158    0.9356033
   0.0809620    0.0318230    0.0047180   -0.3597268    0.4435780    0.8208746
   0.0781780    0.0318230    0.0003570   -0.8802115    0.3673166    0.3005101
   0.0770330    0.0318230   -0.0057480   -0.8052954    0.3248347   -0.4959654
   0.0818910    0.0318230   -0.0066670    0.0618443    0.4226622   -0.9041747
   0.0849750    0.0318230   -0.0047270    0.2347293    0.5116243   -0.8265245
   0.0921080    0.0318230   -0.0059460    0.0180854    0.2946017   -0.9554490
   0.0974240    0.0318230   -0.0051350    0.5390179    0.3830210   -0.7501697
   0.0993610    0.0318230   -0.0013670    0.8570826    0.5148970   -0.0170417
   0.0973490    0.0318230    0.0039270    0.6806332    0.7211754    0.1290138
   0.0984890    0.0261980    0.0082540    0.4391501    0.0117268    0.8983372
   0.0936280    0.0261980    0.0073970   -0.5057127   -0.1278256    0.8531795
   0.0891220    0.0261980    0.0023510   -0.0946020   -0.0721800    0.9928950
   0.0842790    0.0261980    0.0039080    0.0126965   -0.1009054    0.9948150
   0.0808350    0.0261980    0.0029190   -0.7084995   -0.2592340    0.6563735
   0.0800280    0.0261980   -0.0007780   -0.9050114   -0.1743119    0.3880332
   0.0785170    0.0261980   -0.0040900   -0.9262548   -0.1937177   -0.3233041
   0.0813050    0.0261980   -0.0044230   -0.1745036   -0.2338114   -0.9564940
   0.0849540    0.0261980   -0.0056830    0.1739082   -0.1760172   -0.9689034
   0.0901870    0.0261980   -0.0036830    0.1456438   -0.3047206   -0.9412403
   0.0965630    0.0261980   -0.0031290    0.2791635   -0.4017261   -0.8721720
   0.0982570    0.0261980   -0.0019420    0.8671455   -0.2932016   -0.4026060
   0.0980010    0.0261980    0.0034710    0.9999916   -0.0024422    0.0032922
   0.0985230    0.0199480    0.0080680    0.8282149   -0.3788881    0.4129212
   0.0946520    0.0199480    0.0077040   -0.3124191   -0.2030276    0.9279946
   0.0889600    0.0199480    0.0032740   -0.2633580   -0.0063908    0.9646770
   0.0861100    0.0199480    0.0046750   -0.0188274   -0.0746611    0.9970312
   0.0829610    0.0199480    0.0020240   -0.7170865   -0.1986585    0.6680732
   0.0799190    0.0199480   -0.0001610   -0.8756020   -0.1454726    0.4606071
   0.0797270    0.0199480   -0.0037480   -0.5740777   -0.2350179   -0.7843478
   0.0836630    0.0199480   -0.0037530    0.1222452   -0.0906648   -0.9883501
   0.0897410    0.0199480   -0.0011580    0.3868727   -0.2099158   -0.8979225
   0.0961420    0.0199480   -0.0000300    0.4562177   -0.4530795   -0.7658879
   0.0971970    0.0199480    0.0026300    0.8811572   -0.3684034   -0.2963796
   0.0932830    0.0136980    0.0035910    0.3279141   -0.8025777    0.4983386
   0.0881560    0.0136980    0.0024330   -0.0171088   -0.4263052    0.9044176
   0.0850970    0.0136980    0.0032270   -0.3233852   -0.5135888    0.7947632
   0.0817000    0.0136980   -0.0016240   -0.7216334   -0.6758763    0.1497881
   0.0843610    0.0136980   -0.0037570   -0.0876959   -0.5699787   -0.8169662
   0.0876910    0.0136980   -0.0028520    0.4971642   -0.3758537   -0.7820242
   0.0896000    0.0136980   -0.0003580    0.5140595   -0.4326093   -0.7406700
   0.0936260    0.0136980    0.0009220    0.5434022   -0.6874890   -0.4817394
   0.0885400    0.0121350    0.0009770    0.1139775   -0.9934801    0.0025463
   0.0590940    0.0184030    0.0214870   -0.9227000    0.3855185   -0.0005082
   0.0592760    0.0156520    0.0204510   -0.9551037   -0.1430491   -0.2594492
   0.0605950    0.0207480    0.0218770   -0.8134796    0.5794504   -0.0498815
   0.0602410    0.0175460    0.0238880   -0.1713547    0.5833506    0.7939393
   0.0598650    0.0155160    0.0260210   -0.5310876    0.1379617    0.8360099
   0.0605630    0.0113210    0.0220600   -0.5550936   -0.8316949   -0.0124371
   0.0612400    0.0127190    0.0182210   -0.8423297   -0.3597914   -0.4012864
   0.0613800    0.0165990    0.0174290   -0.8374043    0.1684103   -0.5199923
   0.0658850    0.0261160    0.0186000   -0.4658082    0.7201097    0.5142613
   0.0655300    0.0194850    0.0206110   -0.1403778    0.5094508    0.8489723
   0.0649500    0.0160120    0.0239010    0.0433787    0.4709729    0.8810805
   0.0645850    0.0124040    0.0259730    0.1231719   -0.3695710    0.9210027
   0.0651120    0.0099680    0.0229870   -0.1733882   -0.9266611    0.3335201
   0.0657880    0.0105540    0.0191480   -0.1798610   -0.9550567   -0.2356198
   0.0664650    0.0120420    0.0153100   -0.0655029   -0.9977866   -0.0114594
   0.0674110    0.0098780    0.0099480   -0.2387159   -0.9666062    0.0932047
   0.0682700    0.0099680    0.0050730   -0.4492221   -0.5650559   -0.6920342
   0.0685060    0.0161020    0.0037320   -0.5660133    0.0236274   -0.8240575
   0.0678080    0.0220110    0.0076920   -0.7008544    0.4219421   -0.5751244
   0.0667340    0.0255300    0.0137860   -0.6537739    0.7037149   -0.2781459
   0.0723230    0.0293190    0.0177230   -0.0195443    0.9995863    0.0211024
   0.0716030    0.0289580    0.0218070    0.0761408    0.8348265    0.5452222
   0.0712590    0.0251680    0.0237580   -0.2145273    0.3346247    0.9176079
   0.0710440    0.0182230    0.0249750   -0.1841992    0.1513983    0.9711587
   0.0711190    0.0128100    0.0245490   -0.0415051   -0.2995091    0.9531902
   0.0718600    0.0103740    0.0203450   -0.0699895   -0.9664082    0.2472989
   0.0729460    0.0105540    0.0141910   -0.1520835   -0.9869895    0.0521763
   0.0744390    0.0081180    0.0057210   -0.1831727   -0.9812651   -0.0597205
   0.0749010    0.0098780    0.0031000   -0.1272062   -0.3060103   -0.9434915
   0.0745470    0.0142530    0.0051120    0.0622878    0.0777998   -0.9950213
   0.0748260    0.0223270    0.0035270   -0.0757985    0.0748545   -0.9943095
   0.0746860    0.0253490    0.0043180   -0.0667138    0.5139667   -0.8552120
   0.0736230    0.0293640    0.0103510   -0.0934034    0.9302716   -0.3547825
   0.0786950    0.0261160    0.0172140    0.3821083    0.8515719    0.3589130
   0.0778570    0.0237700    0.0219670    0.4321156    0.5490649    0.7154046
   0.0773730    0.0180420    0.0247100    0.2929741    0.2272662    0.9287175
   0.0773730    0.0133060    0.0247100    0.1203933    0.0273978    0.9923481
   0.0774600    0.0099680    0.0242210   -0.0615977   -0.5869768    0.8072571
   0.0781150    0.0086140    0.0205050   -0.0241828   -0.9985758    0.0475562
   0.0792530    0.0096070    0.0140460    0.0158641   -0.9972204    0.0728001
   0.0804790    0.0079380    0.0071000    0.0298012   -0.9660733    0.2565430
   0.0809510    0.0068550    0.0044180    0.1089193   -0.9254585   -0.3628542
   0.0810590    0.0080280    0.0038090    0.3462392   -0.0593109   -0.9362695
   0.0807900    0.0142530    0.0053320    0.2543504    0.0785920   -0.9639135
   0.0809190    0.0213350    0.0046010    0.3955652    0.1161720   -0.9110611
   0.0807900    0.0235000    0.0053320    0.3284826    0.7217211   -0.6092765
   0.0796190    0.0265220    0.0119740    0.2823107    0.9589936   -0.0251394
   0.0852730    0.0257100    0.0155460   -0.0082347    0.4956402    0.8684889
   0.0847460    0.0223270    0.0185340    0.6522006    0.4303627    0.6240371
   0.0841550    0.0164180    0.0218840    0.6604675    0.2387125    0.7118982
   0.0838650    0.0138020    0.0235290    0.5689367    0.1204774    0.8135086
   0.0838330    0.0101930    0.0237130    0.6706146   -0.5505971    0.4971104
   0.0850140    0.0105540    0.0170100    0.6267125   -0.7719284    0.1065734
   0.0859500    0.0096070    0.0117080    0.5962686   -0.7744408    0.2114360
   0.0865510    0.0096070    0.0082960    0.7973610   -0.5895588   -0.1289801
   0.0867880    0.0125390    0.0069550    0.8203048    0.0647818   -0.5682458
   0.0864330    0.0176360    0.0089660    0.8304421    0.0701220   -0.5526742
   0.0864540    0.0240860    0.0088450    0.8259117    0.2990463   -0.4779553
   0.0860470    0.0255300    0.0111590    0.6362284    0.7549899   -0.1587570
   0.0852510    0.0257550    0.0156690   -0.4872103    0.2262154    0.8434766
   0.0861190    0.0173200    0.0143130    0.9846914   -0.0017388    0.1742983
   0.0886460    0.0264950   -0.0380480    0.3799481   -0.0214925   -0.9247581
   0.0944280    0.0283150   -0.0334560    0.9964949   -0.0036175   -0.0835759
   0.0910680    0.0336480   -0.0350210    0.6145043    0.5806423   -0.5340777
   0.0838830    0.0313190   -0.0383720   -0.3675361    0.4133647   -0.8330947
   0.0834970    0.0277740   -0.0385530   -0.7565665    0.2029944   -0.6216112
   0.0820330    0.0248450   -0.0392350   -0.6875714    0.1431214   -0.7118721
   0.0832890    0.0216990   -0.0386490   -0.0226290   -0.4501014   -0.8926907
   0.0892980    0.0205360   -0.0358480    0.4637340   -0.5166976   -0.7197044
   0.0913330    0.0220050   -0.0348990    0.8245217   -0.4443684   -0.3502865
   0.0921940    0.0278080   -0.0288070    0.9877241   -0.0488088    0.1483872
   0.0908740    0.0325290   -0.0294220    0.9480622    0.3177553    0.0144824
   0.0891050    0.0371920   -0.0302490    0.5183867    0.7987781   -0.3053340
   0.0857050    0.0374070   -0.0318330   -0.0733587    0.8511481   -0.5197744
   0.0838410    0.0357130   -0.0327030   -0.4631940    0.7183292   -0.5190901
   0.0805640    0.0331160   -0.0342300   -0.8542948    0.2512771   -0.4550168
   0.0824470    0.0287900   -0.0333520   -0.9708528   -0.1668397   -0.1720734
   0.0824700    0.0219280   -0.0333420   -0.9546402    0.2834297   -0.0912667
   0.0806140    0.0179290   -0.0342080   -0.7628263   -0.3629641   -0.5351198
   0.0841920    0.0145650   -0.0325390    0.0245680   -0.8453673   -0.5336202
   0.0869660    0.0151920   -0.0312450    0.6827868   -0.7198881   -0.1247528
   0.0896650    0.0212750   -0.0299870    0.8946219   -0.4309996    0.1178604
   0.0919520    0.0270860   -0.0213340    0.9592673   -0.2307248    0.1630103
   0.0920480    0.0325990   -0.0212890    0.9838532    0.0740512    0.1629396
   0.0915740    0.0391220   -0.0215110    0.7819167    0.6143791    0.1055676
   0.0880600    0.0399550   -0.0231490   -0.0479987    0.9984684    0.0275149
   0.0838690    0.0397170   -0.0251040   -0.2174081    0.9740371   -0.0631299
   0.0801920    0.0382430   -0.0268180   -0.7315506    0.6271503   -0.2674250
   0.0798590    0.0360470   -0.0269740   -0.9379625    0.1688541   -0.3028444
   0.0816940    0.0287970   -0.0261180   -0.8953042   -0.0733058   -0.4393821
   0.0806400    0.0219880   -0.0266090   -0.8024725    0.3282310   -0.4982994
   0.0772040    0.0159580   -0.0282120   -0.9404633    0.0581163   -0.3348898
   0.0797050    0.0136590   -0.0270460   -0.5603787   -0.8281387    0.0127318
   0.0827640    0.0131070   -0.0256190    0.0935044   -0.9571247    0.2741700
   0.0868890    0.0164940   -0.0236950    0.6679817   -0.6293300    0.3971702
   0.0893680    0.0200460   -0.0225390    0.7474962   -0.5385441    0.3888696
   0.0894380    0.0285490   -0.0149210    0.8093180   -0.2637812    0.5248084
   0.0890210    0.0352420   -0.0151160    0.7502605    0.4067445    0.5212179
   0.0864060    0.0382710   -0.0163350    0.0128054    0.9347825    0.3549896
   0.0824480    0.0359520   -0.0181820   -0.3367971    0.9251584    0.1750702
   0.0790510    0.0354910   -0.0197660   -0.5498316    0.8334139    0.0557367
   0.0756060    0.0325000   -0.0213720   -0.7884855    0.2571778   -0.5587041
   0.0768690    0.0269350   -0.0207820   -0.7246215    0.0249655   -0.6886948
   0.0761440    0.0234450   -0.0211210   -0.9487040   -0.2610585   -0.1783514
   0.0797280    0.0185630   -0.0194490   -0.5377309   -0.7148351    0.4470528
   0.0820490    0.0185700   -0.0183660    0.0802213   -0.7719118    0.6306479
   0.0837370    0.0223440   -0.0175800    0.5366710   -0.6158327    0.5768313
   0.0853980    0.0291650   -0.0092190    0.6208132   -0.4572221    0.6368194
   0.0858950    0.0332730   -0.0089880    0.5771191    0.3034579    0.7581866
   0.0831110    0.0359630   -0.0102870   -0.0116484    0.8799149    0.4749884
   0.0776200    0.0348780   -0.0128470   -0.3178089    0.9372842    0.1431633
   0.0736610    0.0332340   -0.0146920   -0.4756025    0.8792606    0.0265145
   0.0710040    0.0315380   -0.0159310   -0.8621338    0.3899133   -0.3235628
   0.0716350    0.0287840   -0.0156380   -0.8140822   -0.4738724   -0.3357309
   0.0770300    0.0242440   -0.0131210   -0.6501524   -0.7332914    0.1989612
   0.0791320    0.0224510   -0.0121410   -0.0451044   -0.8715509    0.4882260
   0.0813360    0.0239210   -0.0111130    0.2872048   -0.8039732    0.5207116
   0.0786430    0.0289270   -0.0047840    0.3082294    0.0184796    0.9511325
   0.0775050    0.0302740   -0.0053140   -0.0022387    0.5794518    0.8150034
   0.0738760    0.0309380   -0.0070060   -0.3483289    0.7775685    0.5235019
   0.0698020    0.0299690   -0.0089060   -0.9150687    0.1338744    0.3804300
   0.0738870    0.0276750   -0.0070010   -0.4680646   -0.8187450    0.3325239
   0.0776290    0.0268430   -0.0052560    0.0935597   -0.6975613    0.7103906
   0.0751970    0.0285250   -0.0044930   -0.3321894   -0.0305646    0.9427173
  -0.0098000    0.0064470   -0.0063340   -0.9833311   -0.0663923   -0.1692690
  -0.0088450    0.0093520   -0.0032460   -0.9470914    0.3204673    0.0178513
  -0.0079660    0.0085350   -0.0069630   -0.8140357    0.3668232   -0.4503183
  -0.0055530    0.0035810   -0.0130110   -0.5982116    0.3974884   -0.6958059
  -0.0045540    0.0017290   -0.0158190   -0.8307927   -0.2797787   -0.4811521
  -0.0057920    0.0024380   -0.0098800   -0.6987598   -0.7124106    0.0648528
  -0.0073850    0.0048870   -0.0046390   -0.6398593   -0.6669702    0.3817471
  -0.0087500    0.0080450   -0.0017710   -0.8593840   -0.2476048    0.4473823
  -0.0053860    0.0183390    0.0022490   -0.9025843    0.3819635    0.1986089
  -0.0049610    0.0196450   -0.0021820   -0.8915628    0.4347580   -0.1268905
  -0.0020300    0.0161060   -0.0133410   -0.7531390    0.3420146   -0.5619677
   0.0003690    0.0105540   -0.0183770   -0.6035905    0.2383633   -0.7608295
   0.0034720    0.0012990   -0.0217010   -0.4916062    0.0983810   -0.8652425
   0.0053960   -0.0051260   -0.0226950   -0.3492376   -0.1105421   -0.9304910
   0.0060550   -0.0087740   -0.0208010   -0.3763292   -0.8209077   -0.4295193
   0.0047650   -0.0076300   -0.0152540   -0.4823545   -0.8749254    0.0428902
   0.0024720   -0.0053980   -0.0056940   -0.3998711   -0.8668528    0.2977741
   0.0012150   -0.0028940   -0.0024250   -0.5124646   -0.7592243    0.4011965
  -0.0010940    0.0026050    0.0021820   -0.5284069   -0.4770382    0.7022967
  -0.0043060    0.0121870    0.0056130   -0.5891674   -0.3463555    0.7300134
  -0.0052000    0.0159440    0.0048850   -0.8438931    0.1976952    0.4987595
   0.0007740    0.0283800    0.0037790   -0.6985373    0.5259450    0.4852088
   0.0009140    0.0299050    0.0006320   -0.6627618    0.7472642    0.0484041
   0.0026720    0.0299050   -0.0093400   -0.6938995    0.6264909   -0.3549825
   0.0041830    0.0271820   -0.0137060   -0.5018276    0.5316449   -0.6822923
   0.0058600    0.0227180   -0.0163300   -0.2848450    0.3492555   -0.8926835
   0.0087390    0.0144430   -0.0198840   -0.2089554    0.3582017   -0.9099611
   0.0116470    0.0067120   -0.0244480   -0.0963002    0.3223154   -0.9417213
   0.0137540   -0.0002020   -0.0257270   -0.1248707    0.0031328   -0.9921681
   0.0149860   -0.0065170   -0.0229710   -0.0686043   -0.6237262   -0.7786264
   0.0148430   -0.0098390   -0.0170310    0.0098564   -0.9970150   -0.0765761
   0.0136810   -0.0095120   -0.0109520    0.0313112   -0.9702111    0.2402290
   0.0124050   -0.0077150   -0.0064820    0.0434577   -0.8894959    0.4548720
   0.0102730   -0.0039590   -0.0001940   -0.0425126   -0.9073761    0.4181642
   0.0087750   -0.0019450    0.0051910   -0.1785882   -0.8441393    0.5055048
   0.0078180    0.0002870    0.0071810   -0.4492353   -0.5272760    0.7212265
   0.0063320    0.0061680    0.0065360   -0.3880132   -0.2619631    0.8836408
   0.0042660    0.0117750    0.0095990   -0.2193316   -0.4501601    0.8655920
   0.0031860    0.0147150    0.0111860   -0.2696197   -0.2807086    0.9211449
   0.0019430    0.0195060    0.0108410   -0.4409675    0.1947231    0.8761453
   0.0082390    0.0335220    0.0054780   -0.3790900    0.7849094    0.4901102
   0.0109630    0.0336850   -0.0102260   -0.4232591    0.8641750   -0.2721274
   0.0121090    0.0318880   -0.0139580   -0.2704431    0.5139470   -0.8140756
   0.0162850    0.0188220   -0.0174750    0.0431449    0.3401037   -0.9393977
   0.0213960    0.0038500   -0.0233640    0.1144633    0.4223074   -0.8991966
   0.0231390   -0.0007770   -0.0261030    0.0779850    0.0855853   -0.9932741
   0.0243130   -0.0056780   -0.0251980    0.5143294   -0.4244002   -0.7452179
   0.0242530   -0.0087810   -0.0200680    0.4232852   -0.8915060   -0.1613897
   0.0233930   -0.0079100   -0.0165380    0.4780900   -0.8334129    0.2772237
   0.0202860   -0.0041530   -0.0047100    0.3001138   -0.8739375    0.3823152
   0.0177620   -0.0017030    0.0058240    0.1377561   -0.9656204    0.2204552
   0.0168290   -0.0013770    0.0106090   -0.1559995   -0.7473111    0.6459027
   0.0157740    0.0010190    0.0128990   -0.2578639   -0.2666271    0.9286637
   0.0147760    0.0057010    0.0113270   -0.3566951    0.0841673    0.9304217
   0.0130060    0.0121250    0.0114580   -0.0906472   -0.1530737    0.9840485
   0.0113490    0.0177870    0.0121180   -0.0292946   -0.0386602    0.9988229
   0.0097700    0.0245930    0.0105700   -0.1937644    0.3589198    0.9130345
   0.0168990    0.0357770    0.0048460   -0.2466653    0.7463122    0.6182025
   0.0170040    0.0373560    0.0018180   -0.2463115    0.9614013    0.1226303
   0.0193000    0.0372470   -0.0110410   -0.2818350    0.9258415   -0.2517669
   0.0204430    0.0353420   -0.0145840   -0.2167175    0.6160212   -0.7573318
   0.0217980    0.0309860   -0.0155500   -0.1701956    0.1375935   -0.9757569
   0.0264020    0.0153070   -0.0174680    0.0833940    0.2601000   -0.9619737
   0.0298240    0.0055070   -0.0217510    0.3416758    0.2005355   -0.9181738
   0.0304910    0.0028930   -0.0215060    0.7209029   -0.4733139   -0.5062340
   0.0301990    0.0013700   -0.0174960    0.7467468   -0.6647319   -0.0223776
   0.0267740    0.0014780    0.0017630    0.4283227   -0.9009233    0.0698345
   0.0258900    0.0005520    0.0082080    0.3470357   -0.9360899    0.0574615
   0.0251980    0.0003350    0.0124660    0.3529116   -0.7847551    0.5095222
   0.0237050    0.0043090    0.0148040   -0.1068986   -0.0448713    0.9932569
   0.0232500    0.0068130    0.0135180   -0.1784834    0.1879850    0.9658185
   0.0217410    0.0140540    0.0109030   -0.2166305    0.0244118    0.9759484
   0.0189360    0.0243990    0.0108530   -0.1123900    0.1226239    0.9860689
   0.0173960    0.0314220    0.0087430   -0.1984843    0.4559952    0.8675669
   0.0252470    0.0378150    0.0063180   -0.0715044    0.8746035    0.4795371
   0.0256960    0.0384140    0.0028440    0.0138866    0.9901285    0.1394732
   0.0272990    0.0383060   -0.0060770    0.0419868    0.9983758    0.0385081
   0.0276910    0.0391220   -0.0095610    0.0687495    0.9820662   -0.1755546
   0.0301290    0.0351480   -0.0172550   -0.2291097    0.6715480   -0.7046503
   0.0313770    0.0311180   -0.0181140   -0.2515227   -0.1785436   -0.9512405
   0.0343510    0.0181620   -0.0149870    0.1738126    0.0158668   -0.9846509
   0.0368010    0.0113010   -0.0182990    0.3568870    0.2593931   -0.8974112
   0.0376520    0.0075450   -0.0173240    0.6812696   -0.4085693   -0.6074067
   0.0371550    0.0071640   -0.0139210    0.6413657   -0.7454823   -0.1814007
